# .PCD v0.7 - Point Cloud Data file format
VERSION 0.7
FIELDS x y z rgb
SIZE 4 4 4 4
TYPE F F F F
COUNT 1 1 1 1
WIDTH 1015
HEIGHT 1
VIEWPOINT 0 0 0 1 0 0 0
POINTS 1015
DATA ascii
0.54146463 -0.19770317 0.70201021 2.8599577e-39
0.54191279 -0.19252449 0.702447 2.8599577e-39
0.54235423 -0.18732151 0.70235294 2.8599577e-39
0.54331285 -0.18228649 0.70264637 2.8599577e-39
0.54407358 -0.17752425 0.70215356 2.8599577e-39
0.54482394 -0.17356275 0.70224589 2.8599577e-39
0.54556835 -0.17145322 0.70335895 2.8599577e-39
0.54604977 -0.16756634 0.70233178 2.8599577e-39
0.5476715 -0.1623452 0.70274436 2.8599577e-39
0.5502423 -0.16017906 0.70443225 2.8599577e-39
0.55287886 -0.15820055 0.70252085 2.8599577e-39
0.55666178 -0.15607835 0.70378059 2.8599577e-39
0.53318018 -0.081464857 0.70034611 1.982206e-38
0.54808539 -0.071732879 0.70304465 1.6594122e-38
0.5506748 -0.072064355 0.70141113 1.8991575e-38
0.55253392 -0.067444451 0.70277989 1.6224981e-38
0.55939895 -0.065007232 0.70036256 1.8530959e-38
0.55704921 -0.06306947 0.70329785 1.5671808e-38
0.56153321 -0.061479833 0.70266092 1.6502665e-38
0.56304538 -0.057938274 0.70449364 1.1801457e-38
0.56562185 -0.05737336 0.70378697 7.7467184e-39
0.5680654 -0.054344602 0.7044909 6.0875768e-39
0.57247293 -0.052354597 0.70282269 4.889405e-39
0.57415915 -0.04841014 0.70447314 5.1660003e-39
0.57756114 -0.04625228 0.70406729 4.9816034e-39
0.58313125 -0.04433316 0.70109123 4.7972066e-39
0.58433336 -0.039432582 0.70458919 4.889405e-39
0.58956045 -0.038271155 0.70086384 4.889405e-39
0.59417194 -0.031965669 0.70284295 1.1156473e-38
0.59448457 -0.028675158 0.7049365 1.4842806e-38
0.5973174 -0.02721316 0.70409828 1.7977429e-38
0.60016727 -0.025742389 0.70325506 1.9452915e-38
0.59896636 -0.024029344 0.70464391 1.7423889e-38
0.60312933 -0.022618359 0.70311862 1.9360361e-38
0.60308981 -0.019319158 0.70480108 1.696327e-38
0.6076349 -0.017893165 0.70328265 1.8991938e-38
0.61163384 -0.01641522 0.70241761 2.0375233e-38
0.60846925 -0.012178254 0.70478761 2.0282676e-38
0.61243153 -0.013552806 0.70335859 1.9822056e-38
0.61667615 -0.011637129 0.7028693 2.0283037e-38
0.62040877 -0.010105435 0.70236903 2.0559625e-38
0.5212549 -0.0082494244 0.70447838 1.8807546e-38
0.60952359 -0.0081349704 0.70481426 2.028267e-38
0.61286306 -0.0090363091 0.70471221 1.9360708e-38
0.61756694 -0.0083440933 0.70432645 1.8899741e-38
0.62265366 -0.0073978566 0.70314354 1.9545474e-38
0.62656474 -0.0052905958 0.70289505 1.7148021e-38
0.61292112 0.019549564 0.70464671 1.4935692e-38
0.61741728 0.018719234 0.70326424 1.4843496e-38
0.62100029 0.017060243 0.70293778 1.5027888e-38
0.60796243 0.023137685 0.70463002 1.5581061e-38
0.61223859 0.022816703 0.70337278 1.5027888e-38
0.61694866 0.021178465 0.70133018 1.5027888e-38
0.61155182 0.026906662 0.70128107 1.5027888e-38
0.60739052 0.031782299 0.70110059 1.5765451e-38
0.45414832 0.19947505 0.702034 4.6058074e-39
0.45756787 0.19734305 0.70266765 4.6032739e-39
0.46249679 0.19584064 0.70196146 7.3745672e-39
0.46645504 0.19641665 0.70333391 6.7248594e-39
0.47192234 0.19865015 0.70300853 8.2025216e-39
0.44966209 0.20472074 0.70008171 5.811224e-39
0.45185229 0.20231456 0.70292836 4.5121656e-39
0.4480525 0.20785309 0.70213562 4.6065305e-39
0.45180237 0.20702104 0.70352226 4.8766083e-39
0.47841156 0.20597939 0.70479345 8.0148779e-39
0.4439058 0.21380149 0.70189196 4.6998093e-39
0.44580802 0.21157928 0.7031455 4.1430216e-39
0.43976751 0.21926539 0.70121974 4.9778437e-39
0.44180959 0.21727149 0.70299894 4.3274128e-39
0.46754214 0.21539976 0.7029441 5.7197612e-39
0.43779802 0.22269803 0.70253265 4.4210532e-39
0.4402127 0.22060344 0.70476884 4.0486539e-39
0.43386325 0.22804475 0.70245224 4.3292177e-39
0.43564722 0.22601759 0.70355827 3.864627e-39
0.43138358 0.23248716 0.70269084 4.2355773e-39
0.44724774 0.23273239 0.70214206 6.0849102e-39
0.42975625 0.23739426 0.7011404 3.958266e-39
0.4309091 0.23761608 0.70329708 3.77243e-39
0.43113717 0.24225013 0.70274174 4.1415754e-39
0.43303639 0.24647281 0.70248008 4.050463e-39
0.4370203 0.24964646 0.70348394 3.8649872e-39
0.43830118 0.25118765 0.70186013 4.4199686e-39
0.44266051 0.25347185 0.70280176 4.2348543e-39
0.44614545 0.25427744 0.70431352 3.9564597e-39
0.25393516 0.56102079 0.70325023 4.1326169e-39
0.25746581 0.56102812 0.70246857 4.1326169e-39
0.26240116 0.56103837 0.70249861 4.1326169e-39
0.26748648 0.56104892 0.70257229 4.1326169e-39
0.27269602 0.56105965 0.70241958 4.1326169e-39
0.27759475 0.56106979 0.70247644 4.1326169e-39
0.2823931 0.56107968 0.70248723 4.1326169e-39
0.28760114 0.56109041 0.70269907 4.1326169e-39
0.29270175 0.56110102 0.70254695 4.1326169e-39
0.29744384 0.56111079 0.70233756 4.1326169e-39
0.30054659 0.56111723 0.70306987 4.1326169e-39
0.25749829 -0.55897141 0.70752436 1.1164145e-41
0.26241577 -0.55896115 0.70759201 1.1164145e-41
0.26739529 -0.55895096 0.70749718 1.1164145e-41
0.27234271 -0.55894059 0.70754158 1.1164145e-41
0.27752233 -0.55892998 0.70746863 1.1164145e-41
0.28243437 -0.55891979 0.70745474 1.1164145e-41
0.28752205 -0.55890924 0.70767736 1.1164145e-41
0.29274967 -0.55889839 0.70742643 1.1164145e-41
0.29749039 -0.55888861 0.70747697 1.1164145e-41
0.3001425 -0.55888307 0.70829844 1.1164145e-41
0.52661973 -0.33022261 0.70771796 1.3840653e-39
0.52411145 -0.32715937 0.70690972 1.8450561e-39
0.52574152 -0.32860991 0.70887142 1.475905e-39
0.52249485 -0.32273147 0.70681584 2.6755622e-39
0.52297568 -0.31753603 0.70781261 2.8606765e-39
0.52323472 -0.31245494 0.70699835 2.8603164e-39
0.53265214 -0.31016719 0.70807672 6.3626349e-39
0.52375019 -0.30740073 0.70779932 2.8603164e-39
0.51660883 -0.30117664 0.70596492 2.0298159e-39
0.52450091 -0.30295858 0.70656013 2.8599577e-39
0.52517134 -0.30124399 0.70880014 2.861394e-39
0.5259884 -0.29757857 0.70731419 2.8603164e-39
0.5273205 -0.29273546 0.70761788 2.861394e-39
0.52875948 -0.28739193 0.70764923 4.2450333e-39
0.52967328 -0.28375039 0.70700258 1.143298e-38
0.53034991 -0.28133097 0.70726794 1.0421713e-38
0.53130335 -0.27766159 0.70775133 1.051355e-38
0.53230768 -0.27249908 0.70736706 1.0145849e-38
0.53323048 -0.26751131 0.70770937 1.069758e-38
0.53401482 -0.26220489 0.7076149 1.0145849e-38
0.5345664 -0.25804746 0.70720863 1.069758e-38
0.53507912 -0.25623924 0.7090075 9.8699841e-39
0.53538984 -0.25249928 0.70755148 1.1341146e-38
0.53602028 -0.24718902 0.70724398 1.069758e-38
0.53659713 -0.24277519 0.70766312 1.106528e-38
0.53719288 -0.23761013 0.70768732 1.1432981e-38
0.53773373 -0.23224914 0.70712203 1.1341146e-38
0.53835762 -0.22747782 0.70773488 1.1432981e-38
0.53895181 -0.222252 0.70771116 1.1524815e-38
0.53940934 -0.2174629 0.70694798 8.3905576e-39
0.53980905 -0.21352589 0.70620012 3.0443461e-39
0.54025787 -0.21189803 0.70818806 2.8603164e-39
0.54080015 -0.20728916 0.70780307 2.8599577e-39
0.54131567 -0.20250116 0.70696801 2.8599577e-39
0.54206324 -0.19737922 0.70764136 2.8599577e-39
0.54269648 -0.19229768 0.70784134 2.8599577e-39
0.54348159 -0.18737194 0.70714867 2.8603164e-39
0.54430485 -0.18311937 0.70667255 2.8599577e-39
0.54554737 -0.18156758 0.70888793 2.8603164e-39
0.54496491 -0.17913434 0.70618582 2.8599577e-39
0.54599571 -0.17734337 0.7076447 2.8599577e-39
0.54694515 -0.17260329 0.70736486 2.8599577e-39
0.54811031 -0.16744567 0.70736778 2.8599577e-39
0.54902589 -0.16306268 0.70719665 2.8599577e-39
0.55045223 -0.1611972 0.70826775 2.8599577e-39
0.55320442 -0.15887441 0.7076869 2.8599577e-39
0.55726784 -0.15641528 0.70753771 2.8599577e-39
0.55965149 -0.15497412 0.70745051 2.8599577e-39
0.56032938 -0.15484928 0.70906502 2.8599577e-39
0.55567813 -0.061298594 0.70500767 1.806962e-38
0.56762427 -0.051614325 0.7058503 2.0190842e-38
0.57174456 -0.047240816 0.70591933 5.9953882e-39
0.57561737 -0.045291208 0.70517379 5.0738019e-39
0.50392532 -0.042376369 0.70608574 1.1983261e-38
0.50727963 -0.043134674 0.7072736 1.7147663e-38
0.57223117 -0.042187292 0.70656025 4.981602e-39
0.57785052 -0.041890252 0.7059319 4.9816062e-39
0.58166879 -0.042555954 0.70632088 8.7608647e-39
0.50441694 -0.039017588 0.70540774 9.0351717e-39
0.50758934 -0.037858889 0.70624918 1.7148384e-38
0.57772034 -0.037425552 0.70633316 4.8894064e-39
0.58168411 -0.037308343 0.7062636 4.8894064e-39
0.58504879 -0.036203273 0.70619667 4.8894064e-39
0.57781124 -0.032680493 0.7062242 4.8894064e-39
0.58267564 -0.032703429 0.70625186 4.8894064e-39
0.58708358 -0.033104353 0.70624876 4.8894064e-39
0.59085321 -0.031706583 0.70549822 7.8385553e-39
0.58305585 -0.02782177 0.70635271 4.8894064e-39
0.58799505 -0.027546737 0.70640087 4.889405e-39
0.5919134 -0.026583249 0.70646489 6.8251265e-39
0.59612596 -0.025502216 0.70548129 1.6132793e-38
0.58790869 -0.021946097 0.70650262 4.8894064e-39
0.59202808 -0.022094391 0.70657605 4.889405e-39
0.59605181 -0.021920618 0.70654857 7.2857389e-39
0.60051578 -0.020832025 0.70530879 1.631718e-38
0.58783454 -0.017146902 0.70658952 4.889405e-39
0.59196991 -0.017280145 0.70664382 4.889405e-39
0.59745777 -0.017466512 0.70639205 1.051184e-38
0.60298711 -0.016587157 0.70573741 2.0006092e-38
0.59205532 -0.012475285 0.70654422 7.5626901e-39
0.59653646 -0.012612087 0.70623189 1.8439503e-38
0.60246176 -0.012800379 0.7055257 2.0190477e-38
0.60710776 -0.014569808 0.70511037 2.0190479e-38
0.59760451 -0.0078089335 0.70622212 2.0006086e-38
0.60346782 -0.0079679079 0.70559484 2.0004989e-38
0.60709262 -0.0080679068 0.70512754 2.019011e-38
0.61249369 -0.0065682456 0.70512938 1.9268515e-38
0.61760694 -0.0058592693 0.70550698 1.9729863e-38
0.62177569 -0.0051268954 0.70575362 1.982206e-38
0.59776294 -0.0029816711 0.7060383 1.9176324e-38
0.60320574 -0.003097045 0.70589519 2.0097916e-38
0.60790366 -0.0032030884 0.70543081 1.9729131e-38
0.6126771 -0.002385936 0.70587581 1.9268517e-38
0.61726946 -0.0023575877 0.70619082 1.9637303e-38
0.62227631 -0.0018369475 0.70642239 1.9729862e-38
0.59699559 0.0018609626 0.70569962 1.6134234e-38
0.60236949 0.0020983405 0.70587593 1.9176329e-38
0.60733026 0.0025067625 0.70608306 1.9176687e-38
0.61197627 0.0029308256 0.70669413 1.9268522e-38
0.61716408 0.0031845153 0.70722443 1.9452551e-38
0.62170643 0.0031131532 0.70705515 1.9268158e-38
0.60199112 0.0076625496 0.70584226 1.5765453e-38
0.60732085 0.0081927432 0.70609373 1.8162533e-38
0.61213189 0.0081454301 0.70676297 1.8900097e-38
0.617607 0.0078879781 0.70764691 1.8900103e-38
0.62072438 0.0096909683 0.70692182 1.8438766e-38
0.60737437 0.013065117 0.70603299 1.5304475e-38
0.6123569 0.013032142 0.70650953 1.7240581e-38
0.61733025 0.012670371 0.7067945 1.6963996e-38
0.62127715 0.012959269 0.70549232 1.834693e-38
0.60777783 0.017936358 0.7055741 1.5120083e-38
0.61218661 0.017105419 0.70547628 1.4659105e-38
0.61654127 0.016269013 0.70547611 1.5212279e-38
0.60701436 0.021187488 0.70521688 1.5488866e-38
0.45787525 0.19893545 0.70644999 4.7847728e-39
0.46210185 0.19828628 0.70634854 5.796757e-39
0.46725532 0.19885147 0.70617098 6.2570106e-39
0.45338571 0.20308045 0.70644718 4.6007431e-39
0.45658299 0.20197035 0.70841551 4.9688026e-39
0.46265364 0.2007376 0.70853347 6.1648164e-39
0.46753767 0.20145036 0.70825863 6.1648164e-39
0.47220787 0.20232773 0.70761305 6.6268778e-39
0.47570932 0.2038497 0.70623136 7.7368435e-39
0.44911936 0.20832558 0.70643616 4.2323249e-39
0.45197737 0.20697778 0.70820206 4.9688026e-39
0.45504308 0.20555711 0.70950371 5.0606381e-39
0.47312355 0.20632274 0.70918375 6.8090998e-39
0.47717753 0.20852013 0.70759368 6.7183503e-39
0.44476128 0.2143368 0.70521444 3.77243e-39
0.44760513 0.21239915 0.707735 4.3245192e-39
0.45026377 0.2104127 0.7092905 4.6925786e-39
0.44344667 0.21791348 0.70681804 4.3245192e-39
0.44600928 0.21691731 0.70895565 4.7844141e-39
0.47729599 0.21817578 0.70891613 6.7169056e-39
0.43907827 0.22343221 0.70656991 4.1404894e-39
0.44177946 0.22199453 0.70834297 4.7844141e-39
0.44501242 0.22061087 0.70987856 5.2446678e-39
0.47350946 0.22317052 0.70944858 6.6247114e-39
0.47569442 0.22152868 0.70875233 6.4406816e-39
0.43457046 0.22906028 0.7061401 3.77243e-39
0.43714923 0.22709405 0.70773458 4.5081902e-39
0.44041348 0.22539882 0.70952195 5.1524736e-39
0.47090861 0.22698885 0.70952344 6.5328759e-39
0.43358248 0.23260798 0.7067486 4.4163547e-39
0.43604738 0.23156978 0.7092182 4.8766083e-39
0.4691374 0.23260511 0.70838773 6.4410404e-39
0.43312228 0.23762162 0.70719492 4.3245192e-39
0.4354654 0.2362166 0.70978397 4.4167134e-39
0.43312579 0.24229822 0.70753533 4.2323249e-39
0.43598783 0.24351245 0.7097953 5.2446678e-39
0.4630551 0.2427972 0.70868158 6.4410404e-39
0.43358067 0.24551766 0.70645803 4.3245192e-39
0.43721542 0.24744697 0.70768827 4.3245192e-39
0.44056314 0.24924354 0.70928609 3.9564597e-39
0.44516337 0.24593294 0.70525438 6.0881682e-39
0.45855397 0.24938452 0.70667791 6.2570106e-39
0.46059704 0.24850348 0.70610082 6.2570106e-39
0.44262087 0.25149018 0.70731205 4.2326837e-39
0.44770202 0.25308093 0.70771039 4.6007431e-39
0.45181161 0.25260818 0.70816863 5.7052816e-39
0.45652062 0.25026131 0.70725226 6.2570106e-39
0.25309604 0.561019 0.7077474 4.1326169e-39
0.25741309 0.561028 0.70757002 4.1326169e-39
0.26248851 0.56103843 0.70749259 4.1326169e-39
0.26767552 0.56104916 0.70754629 4.1326169e-39
0.27249238 0.56105912 0.70741159 4.1326169e-39
0.27738941 0.56106931 0.70744091 4.1326169e-39
0.28267714 0.56108016 0.70761985 4.1326169e-39
0.28758508 0.56109035 0.7074284 4.1326169e-39
0.29238594 0.5611003 0.70742542 4.1326169e-39
0.29747763 0.56111085 0.7075094 4.1326169e-39
0.30050173 0.56111705 0.70745194 4.1326169e-39
0.27234119 -0.55894059 0.71258485 1.1164145e-41
0.27749565 -0.55892992 0.712524 1.1164145e-41
0.28272942 -0.55891907 0.71246928 1.1164145e-41
0.28762427 -0.55890888 0.71265197 1.1164145e-41
0.29251251 -0.55889881 0.71237481 1.1164145e-41
0.29751474 -0.55888844 0.71255833 1.1164145e-41
0.30048814 -0.5588823 0.71172428 1.1164145e-41
0.53339756 -0.33516836 0.71362066 3.043993e-39
0.52892548 -0.33119348 0.7120716 3.043993e-39
0.53115857 -0.33317825 0.71284515 3.043993e-39
0.52399385 -0.32540053 0.71116829 1.6606592e-39
0.5264529 -0.32793835 0.71284658 2.5830037e-39
0.52318239 -0.32233885 0.71223259 2.1220143e-39
0.52351367 -0.31758228 0.71319705 2.8617541e-39
0.52389789 -0.31255966 0.71234369 2.7875232e-39
0.52454031 -0.30791372 0.71262717 2.7875246e-39
0.52516699 -0.30599412 0.71452379 2.7904e-39
0.52475977 -0.30406854 0.71097946 2.7806974e-39
0.52552992 -0.30203542 0.71282798 2.7896798e-39
0.52666026 -0.29744744 0.71257418 2.7878833e-39
0.52801228 -0.29218832 0.71244377 2.789321e-39
0.52918595 -0.28781831 0.71265006 2.7889623e-39
0.5297839 -0.284814 0.71095717 3.4339646e-39
0.53057069 -0.28258011 0.71265388 3.0662638e-39
0.53174329 -0.27751562 0.71269941 2.9744298e-39
0.53262818 -0.27290282 0.71243948 3.0662652e-39
0.52538049 -0.26912344 0.71388328 2.7763856e-39
0.53371221 -0.26742876 0.71260422 2.9744298e-39
0.53455406 -0.2627722 0.7124036 3.1581007e-39
0.53531736 -0.25744972 0.71254885 3.0662652e-39
0.5359444 -0.25216493 0.71224743 3.433966e-39
0.536538 -0.24777997 0.71264112 3.433966e-39
0.53718114 -0.24266383 0.71260399 3.0662652e-39
0.5377925 -0.23734985 0.71232545 3.8938609e-39
0.53838205 -0.23259692 0.71260411 3.9856964e-39
0.53898329 -0.22739875 0.71257114 3.2499362e-39
0.5394327 -0.22263069 0.71182406 4.9051262e-39
0.54000837 -0.2210499 0.71492332 2.7904e-39
0.53987139 -0.2180893 0.71119517 4.5305983e-39
0.54031479 -0.21702857 0.713723 2.7896812e-39
0.54074138 -0.21246529 0.71277571 2.788242e-39
0.54130608 -0.20736502 0.71205884 2.7832128e-39
0.54197735 -0.20233861 0.71267021 2.7832128e-39
0.54254657 -0.19750865 0.71292704 2.785368e-39
0.54300719 -0.19269967 0.71217024 2.7799786e-39
0.54364038 -0.18741071 0.71276313 2.7828526e-39
0.54447109 -0.1835068 0.71334118 2.7824953e-39
0.54530686 -0.18210894 0.71188241 2.8678624e-39
0.54697043 -0.17743389 0.71205574 2.7749493e-39
0.54850185 -0.17283659 0.71222591 2.7742304e-39
0.54954171 -0.16809644 0.71104163 2.8606765e-39
0.55056733 -0.16639656 0.71285027 2.7763856e-39
0.55151772 -0.16226579 0.712641 2.775308e-39
0.55374396 -0.15919131 0.71231282 2.7735116e-39
0.55777907 -0.15761659 0.71281147 3.4135084e-39
0.5624522 -0.15657869 0.71286887 3.5979053e-39
0.56695986 -0.15666273 0.71438444 3.5979053e-39
0.56155044 -0.15490073 0.71001023 3.5979053e-39
0.45877782 0.20360212 0.71093911 5.520533e-39
0.46235198 0.20332015 0.71098566 6.1648164e-39
0.4675622 0.20393801 0.71072 5.9807867e-39
0.45390549 0.20836484 0.71061152 5.0606381e-39
0.45748103 0.20769137 0.7120648 5.796757e-39
0.46295369 0.20729576 0.71280575 6.3488461e-39
0.46746635 0.20787525 0.71285164 6.4406816e-39
0.47198638 0.20848821 0.71167612 6.4410404e-39
0.4494859 0.2135978 0.71048909 4.8766083e-39
0.45273677 0.21255803 0.71177042 5.6127272e-39
0.45724702 0.21266873 0.71341467 5.9807867e-39
0.46209648 0.21246962 0.71385664 6.3488461e-39
0.4673385 0.21241653 0.71378535 6.5328759e-39
0.47192755 0.2126517 0.71282709 6.6250701e-39
0.47600064 0.21257223 0.71079642 6.5328759e-39
0.44842184 0.21794862 0.71121812 5.1524736e-39
0.45215878 0.21751648 0.71294051 5.7049215e-39
0.45757359 0.21753196 0.71441734 6.2570106e-39
0.46245435 0.21685666 0.71456558 6.4410404e-39
0.46725807 0.21770959 0.71365577 6.6250701e-39
0.47303322 0.21770923 0.71139079 6.7169056e-39
0.44385356 0.22333372 0.71067947 5.2446678e-39
0.4474366 0.22263399 0.71214801 5.7045627e-39
0.45235246 0.2224222 0.71385419 5.8885925e-39
0.45717064 0.22246395 0.71466911 6.3488461e-39
0.46273077 0.22248805 0.71415311 6.6250701e-39
0.46723324 0.22241375 0.71298301 6.6247114e-39
0.47134963 0.22250843 0.71095228 6.6247114e-39
0.43924212 0.22871034 0.71052861 5.1524736e-39
0.44261271 0.2276087 0.71173948 5.6127272e-39
0.44769362 0.22719693 0.71302605 5.9807867e-39
0.45222828 0.22738808 0.71417874 6.0729809e-39
0.45706332 0.22756951 0.71449322 6.4410404e-39
0.46168402 0.22746158 0.71392095 6.6247114e-39
0.46700853 0.22760987 0.71153849 6.6247114e-39
0.43815452 0.23262104 0.71107054 5.2446678e-39
0.44204232 0.23262164 0.71300733 5.796757e-39
0.44736883 0.23229067 0.71375346 6.1648164e-39
0.45184836 0.23269399 0.71412498 6.3488461e-39
0.45677146 0.23248716 0.71415454 6.4410404e-39
0.46187237 0.23249255 0.71294785 6.7169056e-39
0.46631864 0.23235179 0.71069026 6.7169056e-39
0.4376379 0.23779485 0.71194416 5.1524736e-39
0.44258732 0.23730719 0.71391022 6.0726222e-39
0.4470627 0.2375982 0.71399814 6.3488461e-39
0.45202425 0.23752707 0.71433246 6.4410404e-39
0.45738763 0.23755679 0.71370232 6.6250701e-39
0.46260157 0.23701367 0.71160978 6.6247114e-39
0.43799636 0.2422931 0.71150517 4.9684438e-39
0.44231156 0.24249969 0.71346349 5.8885925e-39
0.4474349 0.24251036 0.713902 6.2570106e-39
0.45225224 0.24242081 0.71375954 6.3488461e-39
0.45680013 0.24208295 0.71309203 6.5328759e-39
0.46048588 0.24177137 0.71128333 6.5328759e-39
0.43911961 0.24593607 0.71030176 5.2446678e-39
0.44263372 0.24749897 0.71149641 5.1528323e-39
0.44752666 0.24725959 0.7126773 6.0729809e-39
0.45173898 0.24702795 0.7124607 6.3488461e-39
0.45599377 0.24570014 0.71181583 6.3488461e-39
0.44760856 0.25044671 0.71087885 5.2446678e-39
0.2496845 0.56101191 0.71407813 4.1326169e-39
0.25244984 0.56101763 0.71252656 4.1326169e-39
0.25736213 0.56102777 0.71261537 4.1326169e-39
0.26239458 0.5610382 0.71256638 4.1326169e-39
0.26740623 0.56104851 0.7124719 4.1326169e-39
0.27244091 0.561059 0.71250784 4.1326169e-39
0.27748758 0.56106949 0.71240848 4.1326169e-39
0.2823706 0.5610795 0.71261978 4.1326169e-39
0.2873739 0.56108987 0.71250314 4.1326169e-39
0.2926816 0.56110084 0.7124055 4.1326169e-39
0.29769731 0.56111121 0.71243918 4.1326169e-39
0.30054963 0.56111711 0.71298367 4.1326169e-39
0.28741735 -0.5589093 0.71751732 1.1164145e-41
0.29243436 -0.55889887 0.71741247 1.1164145e-41
0.29740509 -0.55888861 0.71764362 1.1164145e-41
0.30024022 -0.55888271 0.71650153 1.1164145e-41
0.53685427 -0.33657414 0.71770912 3.043993e-39
0.53247344 -0.33251387 0.71654594 2.9517974e-39
0.53521723 -0.3342905 0.71857929 3.043993e-39
0.52757072 -0.32729885 0.71626955 3.043993e-39
0.5306291 -0.32954282 0.71960008 2.8599577e-39
0.52399498 -0.32215846 0.71726704 2.3060482e-39
0.52420646 -0.31715214 0.71729463 2.8624716e-39
0.52468789 -0.31304199 0.71688467 2.7875246e-39
0.52518892 -0.31123018 0.71874726 2.7904e-39
0.52555525 -0.30750868 0.71766639 2.7904e-39
0.52618009 -0.30245957 0.71725994 2.7904e-39
0.52726138 -0.29769897 0.7174772 2.7904e-39
0.52861893 -0.29255691 0.71782553 2.7904e-39
0.52966177 -0.28809494 0.7169674 2.7904e-39
0.53031486 -0.28580546 0.71758062 2.7904e-39
0.53111947 -0.28270996 0.71776092 2.7904e-39
0.53216815 -0.27774113 0.71762657 2.7904e-39
0.53313679 -0.27271351 0.71760005 2.7904e-39
0.52533203 -0.26559573 0.71795946 1.1708845e-38
0.53411889 -0.26768509 0.71755558 2.7904e-39
0.5347752 -0.26432735 0.71752757 2.7904e-39
0.5352484 -0.26160976 0.7175706 2.7904e-39
0.53579587 -0.25706062 0.71730322 2.7904e-39
0.53637254 -0.25268772 0.71771437 2.7904e-39
0.53700298 -0.24759127 0.71769285 2.7904e-39
0.53760827 -0.24231891 0.71705389 2.7904e-39
0.53826696 -0.23762274 0.71793479 2.7904e-39
0.53886944 -0.23243503 0.71757656 2.7904e-39
0.53947389 -0.22723937 0.71721554 2.7904e-39
0.53983575 -0.22334689 0.71595049 2.7904e-39
0.54024094 -0.2221303 0.71866751 2.7904e-39
0.54070604 -0.21760996 0.71767884 2.7904e-39
0.54131752 -0.21239617 0.71731156 2.7904e-39
0.54192108 -0.20752296 0.71759999 2.7904e-39
0.54243946 -0.2026933 0.71791798 2.7904e-39
0.54291141 -0.19755769 0.71732533 2.7904e-39
0.54353935 -0.19226557 0.71774608 2.7904e-39
0.54396051 -0.18799706 0.71752107 2.7904e-39
0.54452771 -0.18283214 0.71789211 2.7904e-39
0.54501706 -0.18063021 0.71589684 2.7904e-39
0.54584736 -0.17742728 0.71768147 2.7900399e-39
0.54756647 -0.17292225 0.71707261 2.7900399e-39
0.54884446 -0.16825998 0.71757859 2.7889623e-39
0.55030894 -0.16609797 0.71657103 2.789321e-39
0.54978806 -0.16248624 0.71963006 2.7871658e-39
0.55218101 -0.16133882 0.71788287 2.7709962e-39
0.55545318 -0.15909249 0.71748191 3.0447161e-39
0.56093836 -0.1586708 0.71562171 3.5979053e-39
0.56690097 -0.15750939 0.71566886 3.5979053e-39
0.55647659 -0.0075594382 0.71951157 4.9812293e-39
0.24899614 0.56101042 0.71791852 4.1326169e-39
0.25263375 0.56101793 0.71747082 4.1326169e-39
0.25744081 0.56102788 0.71762216 4.1326169e-39
0.2623013 0.56103796 0.71740472 4.1326169e-39
0.26730022 0.56104827 0.71752149 4.1326169e-39
0.27240226 0.56105882 0.7174952 4.1326169e-39
0.27741101 0.56106925 0.71741402 4.1326169e-39
0.28249291 0.56107974 0.71748632 4.1326169e-39
0.28744507 0.56108987 0.71744978 4.1326169e-39
0.29224792 0.56109989 0.71771717 4.1326169e-39
0.29747504 0.56111073 0.71747959 4.1326169e-39
0.30077875 0.56111753 0.71756935 4.1326169e-39
0.53827929 -0.3368924 0.72073883 2.8599577e-39
0.53317571 -0.33178878 0.7223798 2.8599577e-39
0.52819234 -0.32688311 0.72271967 2.8599577e-39
0.52424127 -0.32159939 0.72298807 1.9372559e-39
0.52582121 -0.32466179 0.72095197 2.8599577e-39
0.52461988 -0.31778008 0.72223228 2.8606751e-39
0.52505863 -0.31599277 0.72433996 2.8610353e-39
0.5254088 -0.31245703 0.72285885 2.7875246e-39
0.52604759 -0.30736297 0.72216475 2.7904e-39
0.52679706 -0.30279034 0.72258478 2.7904e-39
0.52803993 -0.29719573 0.72243363 2.7904e-39
0.52920085 -0.29260656 0.72280359 2.7904e-39
0.52987546 -0.28923446 0.72136807 2.7904e-39
0.53063881 -0.28692394 0.72289878 2.7904e-39
0.5318104 -0.28199074 0.7223748 2.7904e-39
0.53278601 -0.27736488 0.72287184 2.7904e-39
0.53374928 -0.27198309 0.72231627 2.7904e-39
0.53462785 -0.26765257 0.72276849 2.7904e-39
0.53519773 -0.2650606 0.7234211 2.7904e-39
0.53561527 -0.26215693 0.72259188 2.7904e-39
0.53615993 -0.25781438 0.72247159 2.7904e-39
0.53683996 -0.25248379 0.72272104 2.7904e-39
0.53762013 -0.24729283 0.72239441 2.7896812e-39
0.53809124 -0.24254391 0.72265494 2.7904e-39
0.53873664 -0.23741953 0.72256589 2.7904e-39
0.53940099 -0.23229745 0.72245157 2.7904e-39
0.53971022 -0.22838597 0.72094268 2.7904e-39
0.5402202 -0.22721553 0.72350639 2.7904e-39
0.54070467 -0.22233006 0.72232926 2.7904e-39
0.54145819 -0.21707854 0.72275817 2.7904e-39
0.54199713 -0.21259959 0.72238559 2.7904e-39
0.5426333 -0.20756412 0.72232193 2.7904e-39
0.54329938 -0.20226116 0.72286266 2.7904e-39
0.54370135 -0.19756953 0.72236246 2.7904e-39
0.54418069 -0.19291043 0.72236729 2.7904e-39
0.54471368 -0.18753283 0.72247702 2.7904e-39
0.54486024 -0.18358359 0.72092307 2.7904e-39
0.54528362 -0.18201156 0.72319698 2.7904e-39
0.54566389 -0.1779526 0.72259259 2.7904e-39
0.54690319 -0.17243491 0.72259176 2.7904e-39
0.54817516 -0.16753152 0.72268653 2.7907602e-39
0.54914397 -0.16406043 0.72202677 2.9769535e-39
0.55192053 -0.16243793 0.72325402 2.97552e-39
0.55520093 -0.16102126 0.72499484 3.0702309e-39
0.55450845 -0.15978408 0.72224861 2.9650943e-39
0.55763656 -0.15817931 0.72306836 2.8667876e-39
0.56159031 -0.15595557 0.72444993 2.8599577e-39
0.24801226 0.56100827 0.72282439 4.1326169e-39
0.25249296 0.56101757 0.72253805 4.1326169e-39
0.25759867 0.56102818 0.72254169 4.1326169e-39
0.26243579 0.56103814 0.72235394 4.1326169e-39
0.26732665 0.56104827 0.72253275 4.1326169e-39
0.27243984 0.56105888 0.72252542 4.1326169e-39
0.27763218 0.56106961 0.72252345 4.1326169e-39
0.28253454 0.5610798 0.72248608 4.1326169e-39
0.28749725 0.56108999 0.72242594 4.1326169e-39
0.29265615 0.56110066 0.72257465 4.1326169e-39
0.29751614 0.56111073 0.72264528 4.1326169e-39
0.30055189 0.56111693 0.72270131 4.1326169e-39
0.52656281 -0.32538778 0.72958279 1.2918683e-39
0.524728 -0.32177886 0.72636086 1.3837066e-39
0.52606732 -0.32242021 0.72902364 1.660662e-39
0.52489913 -0.3189365 0.72693884 2.6755608e-39
0.52565908 -0.31759685 0.72835207 2.8603164e-39
0.5258404 -0.31254113 0.72752434 2.786447e-39
0.52647287 -0.30783331 0.72731286 2.7904e-39
0.52757072 -0.30226919 0.72750527 2.7904e-39
0.52870446 -0.29758105 0.7276541 2.7904e-39
0.52962303 -0.2930921 0.72664726 2.7904e-39
0.53020823 -0.29163057 0.72828877 2.7904e-39
0.53111982 -0.28743312 0.72777313 2.7904e-39
0.5322035 -0.28265154 0.72746366 2.7904e-39
0.53328985 -0.2772643 0.72761774 2.7904e-39
0.53413051 -0.27268082 0.72742063 2.7904e-39
0.5347935 -0.26924446 0.72751534 2.7904e-39
0.53530383 -0.26658663 0.72766882 2.7904e-39
0.5359531 -0.26261446 0.72751671 2.7904e-39
0.53672665 -0.25736055 0.72764629 2.7904e-39
0.53738964 -0.25215614 0.72730809 2.7904e-39
0.53804153 -0.24750312 0.72750026 2.7904e-39
0.53871036 -0.24241567 0.727382 2.7904e-39
0.53939146 -0.23747678 0.72750688 2.7904e-39
0.53969419 -0.23385586 0.726156 2.7904e-39
0.54019624 -0.23225892 0.728311 2.7904e-39
0.5406853 -0.22740291 0.72713715 2.7904e-39
0.54144025 -0.22237907 0.72777653 2.7904e-39
0.54202873 -0.2176936 0.727512 2.7904e-39
0.54269344 -0.21238606 0.72720027 2.7904e-39
0.54339534 -0.2074322 0.72775948 2.7904e-39
0.54394197 -0.20296033 0.7275278 2.7904e-39
0.54447174 -0.19757454 0.72738528 2.7904e-39
0.54480684 -0.19275495 0.72673404 2.7904e-39
0.54493451 -0.18963702 0.72562337 2.7904e-39
0.2809279 0.55826902 0.72748637 4.1326169e-39
0.24458888 0.56100118 0.72853708 4.1326169e-39
0.24751209 0.5610072 0.72744018 4.1326169e-39
0.2525135 0.56101757 0.7275846 4.1326169e-39
0.25741825 0.56102777 0.72740978 4.1326169e-39
0.26254627 0.56103832 0.72751147 4.1326169e-39
0.26774552 0.56104904 0.72754508 4.1326169e-39
0.272515 0.56105894 0.7275151 4.1326169e-39
0.27733475 0.56106895 0.72750491 4.1326169e-39
0.28240204 0.56107932 0.7276265 4.1326169e-39
0.28733146 0.56108958 0.72761804 4.1326169e-39
0.29229859 0.56109989 0.72742397 4.1326169e-39
0.29749784 0.56111062 0.72755438 4.1326169e-39
0.30050793 0.56111687 0.72690964 4.1326169e-39
0.26438075 0.56551749 0.72719073 4.1326169e-39
0.53035897 -0.33116037 0.73426318 2.9521561e-39
0.52802229 -0.32677445 0.73277199 1.2918683e-39
0.52764517 -0.32239628 0.73227674 2.1220115e-39
0.52719152 -0.31728944 0.7318362 2.862473e-39
0.52673656 -0.31293634 0.73173451 2.7871644e-39
0.52712059 -0.30765823 0.73243308 2.7903986e-39
0.52809691 -0.30269992 0.73259622 2.7896798e-39
0.5293203 -0.2972869 0.7326144 2.7896798e-39
0.52984929 -0.29460737 0.73135686 2.7903986e-39
0.53048247 -0.29213819 0.73292679 2.7900385e-39
0.53149861 -0.28746608 0.73257071 2.7896798e-39
0.53261012 -0.28237116 0.73262459 2.7900385e-39
0.53359532 -0.27742529 0.73257375 2.7889623e-39
0.53453183 -0.27243987 0.73258889 2.7900385e-39
0.53539348 -0.26728967 0.73240072 2.789321e-39
0.53601253 -0.26258984 0.73294014 2.7896798e-39
0.53676617 -0.25778604 0.73234177 2.7900399e-39
0.5375756 -0.25283471 0.73261201 2.789321e-39
0.53842843 -0.247631 0.73264486 2.7900399e-39
0.53924221 -0.24223192 0.73186314 2.7900399e-39
0.5398674 -0.23844716 0.73306012 2.7900385e-39
0.54025888 -0.23605429 0.73297137 2.7900399e-39
0.54064435 -0.23242529 0.73193389 2.7900399e-39
0.5413357 -0.22739345 0.73264575 2.7900399e-39
0.54197717 -0.22243918 0.73282439 2.7900399e-39
0.54254293 -0.21743083 0.73212957 2.7903986e-39
0.24383964 0.56099957 0.73295885 4.1326169e-39
0.24752726 0.56100726 0.73239875 4.1326169e-39
0.25251782 0.56101751 0.73256373 4.1326169e-39
0.25742036 0.56102771 0.73238832 4.1326169e-39
0.26251119 0.5610382 0.73256248 4.1326169e-39
0.26750758 0.56104851 0.73241657 4.1326169e-39
0.27258411 0.56105906 0.73249018 4.1326169e-39
0.27755409 0.56106931 0.73250777 4.1326169e-39
0.28239721 0.56107938 0.73266923 4.1326169e-39
0.28758675 0.56109011 0.73252118 4.1326169e-39
0.29253057 0.56110024 0.73235667 4.1326169e-39
0.29736736 0.56111026 0.73256844 4.1326169e-39
0.30067131 0.56111711 0.73276854 4.1326169e-39
0.2688601 -0.55894732 0.73602819 1.1164145e-41
0.27254006 -0.5589397 0.73750955 1.1164145e-41
0.27754757 -0.55892926 0.73725784 1.1164145e-41
0.53712106 -0.33529365 0.73761886 2.9521561e-39
0.54035121 -0.3376044 0.73834074 2.9521561e-39
0.53247672 -0.33161968 0.73750192 2.9521561e-39
0.53745914 -0.33483005 0.73954254 2.9521561e-39
0.52808022 -0.32739595 0.73789954 1.8450575e-39
0.52768064 -0.32229856 0.73761678 2.2142113e-39
0.5339427 -0.32096207 0.73612911 3.8741292e-39
0.5277192 -0.31774566 0.73780316 2.8603164e-39
0.53338122 -0.31595147 0.73811847 4.9816034e-39
0.52784592 -0.31268281 0.73719698 2.7745892e-39
0.52824843 -0.30773187 0.73714077 2.7756668e-39
0.52888072 -0.30220947 0.73767984 2.8649869e-39
0.52955335 -0.29781097 0.73761988 2.7745892e-39
0.53005373 -0.29552168 0.73934042 2.8599577e-39
0.5306288 -0.29247868 0.73745269 2.7735116e-39
0.53167105 -0.28771925 0.73761982 2.7735116e-39
0.53281051 -0.28243732 0.73747516 2.7731528e-39
0.53385007 -0.27755633 0.73755389 2.7727927e-39
0.53469771 -0.27287221 0.73709124 2.7742304e-39
0.53501827 -0.27053404 0.73786825 2.8606765e-39
0.53533614 -0.2678498 0.73776603 2.7731514e-39
0.53595757 -0.26258165 0.73787946 2.8642695e-39
0.5367313 -0.25739387 0.73675805 2.7774632e-39
0.53839624 -0.24728043 0.73705441 2.7767444e-39
0.24276236 0.56099731 0.73770279 4.1326169e-39
0.24732967 0.56100667 0.73752683 4.1326169e-39
0.25242004 0.56101722 0.73763329 4.1326169e-39
0.25752425 0.56102782 0.73749143 4.1326169e-39
0.26246041 0.56103796 0.73754543 4.1326169e-39
0.26745439 0.56104833 0.73739904 4.1326169e-39
0.27248332 0.56105876 0.73749679 4.1326169e-39
0.27757144 0.56106919 0.73759508 4.1326169e-39
0.2825968 0.56107968 0.73750585 4.1326169e-39
0.28752136 0.56108987 0.73752528 4.1326169e-39
0.29262736 0.56110042 0.73742378 4.1326169e-39
0.29766813 0.56111079 0.73744202 4.1326169e-39
0.30060053 0.56111687 0.73748457 4.1326169e-39
0.26723388 0.57017851 0.73885185 4.1326169e-39
0.27370283 -0.55893713 0.74136209 1.1164145e-41
0.27748382 -0.55892932 0.7424317 1.1164145e-41
0.28250846 -0.55891889 0.74239659 1.1164145e-41
0.28753638 -0.55890846 0.74251837 1.1164145e-41
0.29254451 -0.55889821 0.74232471 1.1164145e-41
0.30017191 -0.5588823 0.74374402 1.1164145e-41
0.52259201 -0.33989161 0.74177861 2.9521561e-39
0.52822572 -0.32627741 0.74254358 2.2142113e-39
0.53139347 -0.32979357 0.74001372 2.9521561e-39
0.5281769 -0.32268763 0.74254644 1.9376174e-39
0.52857763 -0.3175213 0.74217415 2.8599577e-39
0.52912766 -0.31250465 0.74303126 2.8599577e-39
0.52940571 -0.30755123 0.74224234 2.8599577e-39
0.52968907 -0.30320317 0.74179208 2.8599577e-39
0.53014946 -0.30171499 0.74388033 2.8599577e-39
0.53044939 -0.29715675 0.74263746 2.8599577e-39
0.53133816 -0.29259598 0.74262232 2.8599577e-39
0.53234231 -0.28738821 0.74233538 2.8599577e-39
0.5333268 -0.28257999 0.74251759 2.8599577e-39
0.57847625 -0.27691382 0.74067044 5.1660003e-39
0.23944145 0.56099033 0.74386793 4.1326169e-39
0.24252915 0.56099677 0.74232394 4.1326169e-39
0.24754256 0.56100702 0.74254477 4.1326169e-39
0.25263572 0.56101751 0.74251223 4.1326169e-39
0.25738925 0.56102753 0.74250221 4.1326169e-39
0.26230469 0.5610376 0.74261802 4.1326169e-39
0.26750341 0.56104845 0.74250674 4.1326169e-39
0.27238435 0.56105852 0.74244773 4.1326169e-39
0.27746105 0.56106895 0.74258018 4.1326169e-39
0.28257 0.5610795 0.74236441 4.1326169e-39
0.28731772 0.56108934 0.74255681 4.1326169e-39
0.29226914 0.56109965 0.74260479 4.1326169e-39
0.2972964 0.56110996 0.74236768 4.1326169e-39
0.30053064 0.5611167 0.7421509 4.1326169e-39
0.27856159 -0.558927 0.74642277 1.1164145e-41
0.28241646 -0.55891901 0.74754238 1.1164145e-41
0.28733653 -0.55890888 0.74738091 1.1164145e-41
0.29239395 -0.55889827 0.74753094 1.1164145e-41
0.2975677 -0.55888766 0.74752593 1.1164145e-41
0.30050501 -0.55888158 0.7469393 1.1164145e-41
0.53864646 -0.33663517 0.74967635 2.8599577e-39
0.53324372 -0.33165926 0.74817586 2.8599577e-39
0.52914226 -0.32616147 0.74743468 2.3989683e-39
0.53085095 -0.32884637 0.74764091 2.8599577e-39
0.56759501 -0.32720095 0.74900413 5.0737949e-39
0.52888823 -0.32231787 0.74774551 1.6606606e-39
0.57199264 -0.32213098 0.74743718 5.0737724e-39
0.52929294 -0.31744593 0.74724805 2.8599577e-39
0.57414019 -0.31148839 0.74959487 5.0737836e-39
0.52991247 -0.30976343 0.7464878 2.8599577e-39
0.57684344 -0.30329365 0.74884349 4.7971897e-39
0.58277744 -0.26183313 0.74908829 5.8113543e-39
0.58201575 -0.25837952 0.74993473 5.8113571e-39
0.55033988 -0.18276909 0.74952078 3.0443545e-39
0.55168122 -0.17255519 0.7481491 2.8599605e-39
0.55277437 -0.16763465 0.74857026 2.9521561e-39
0.55431628 -0.16400713 0.74944139 2.9521561e-39
0.55724651 -0.16147934 0.74946463 2.8599577e-39
0.55987281 -0.15958686 0.74985552 2.8599577e-39
0.23871112 0.56098872 0.74777997 4.1326169e-39
0.242506 0.56099665 0.74749696 4.1326169e-39
0.24762413 0.56100726 0.74747729 4.1326169e-39
0.25246024 0.56101727 0.74744785 4.1326169e-39
0.25742376 0.56102753 0.74739069 4.1326169e-39
0.26247013 0.5610379 0.74750137 4.1326169e-39
0.26745903 0.56104827 0.74761218 4.1326169e-39
0.27259213 0.56105882 0.74743485 4.1326169e-39
0.27760932 0.56106919 0.74758577 4.1326169e-39
0.28242934 0.56107914 0.74753004 4.1326169e-39
0.28756484 0.56108987 0.74747652 4.1326169e-39
0.29253212 0.56110013 0.74763763 4.1326169e-39
0.29772198 0.56111085 0.74744529 4.1326169e-39
0.30069113 0.56111693 0.74783105 4.1326169e-39
0.28339881 -0.55891687 0.75172728 1.1164145e-41
0.28749281 -0.55890846 0.7523526 1.1164145e-41
0.29261228 -0.55889779 0.75263125 1.1164145e-41
0.29752925 -0.55888766 0.7526263 1.1164145e-41
0.30026591 -0.558882 0.75136936 1.1164145e-41
0.53818488 -0.33641666 0.75480145 2.8599577e-39
0.55753905 -0.33219826 0.75483102 5.1659989e-39
0.56345081 -0.33236301 0.75031149 4.8890449e-39
0.56152934 -0.32702526 0.75365841 5.1660017e-39
0.56555176 -0.32181054 0.75247622 5.1660017e-39
0.56349957 -0.31902337 0.7548154 5.1663618e-39
0.56696403 -0.31675741 0.75314808 5.1660017e-39
0.5678553 -0.31137842 0.75441259 5.2581959e-39
0.57118219 -0.31490564 0.75064802 5.1659947e-39
0.56853676 -0.30769458 0.75477928 5.2581973e-39
0.57037705 -0.30772799 0.75383759 5.1660003e-39
0.56949949 -0.3026664 0.75482702 5.2581973e-39
0.57401079 -0.30013049 0.75202572 5.1660003e-39
0.57267463 -0.29708189 0.75352669 5.1660017e-39
0.57209045 -0.29295272 0.75418288 5.2581973e-39
0.5717513 -0.28745183 0.75456393 5.1660017e-39
0.57591832 -0.28613946 0.75216699 5.1660003e-39
0.5731737 -0.28187516 0.75410539 5.1660003e-39
0.57313609 -0.27729693 0.75414759 5.1660017e-39
0.57840061 -0.27163628 0.75167441 5.2581973e-39
0.57838225 -0.26780343 0.75169492 5.2581973e-39
0.5783565 -0.26243788 0.75172359 5.2581973e-39
0.58138615 -0.25653356 0.75063431 5.6269714e-39
0.58152127 -0.25284573 0.75124764 5.4422242e-39
0.54860806 -0.19746341 0.75238937 2.8599577e-39
0.5491845 -0.1929815 0.75233477 2.8599577e-39
0.55024391 -0.19088881 0.75420272 2.8599577e-39
0.54956532 -0.18844315 0.75043309 2.8599577e-39
0.5507341 -0.18725903 0.75297779 2.8599577e-39
0.55173302 -0.18252337 0.75246048 2.8599577e-39
0.55291677 -0.17763364 0.75252974 2.8599591e-39
0.55384374 -0.17270528 0.75207227 2.9521561e-39
0.55538327 -0.17066596 0.75428945 3.0443545e-39
0.55418724 -0.16779618 0.75096607 3.0443545e-39
0.55578977 -0.1673782 0.75343961 2.9521561e-39
0.55487573 -0.16459754 0.75107837 3.0443545e-39
0.55735862 -0.16264349 0.75293881 3.0447161e-39
0.56223828 -0.16085431 0.75398397 3.8745006e-39
0.56774569 -0.16015027 0.75453657 3.8745006e-39
0.56275976 -0.15883389 0.7516768 3.5979053e-39
0.56742507 -0.15791029 0.75194132 3.8745006e-39
0.57211661 -0.15784867 0.75301677 3.8745006e-39
0.57582831 -0.15840119 0.75454319 3.8745006e-39
0.2688275 0.55353576 0.75227273 4.1326169e-39
0.23790039 0.56098706 0.75261319 4.1326169e-39
0.24253768 0.56099671 0.75245649 4.1326169e-39
0.24737442 0.56100667 0.75253069 4.1326169e-39
0.25249293 0.56101722 0.75248837 4.1326169e-39
0.25744319 0.56102747 0.7524724 4.1326169e-39
0.26251787 0.56103796 0.75233161 4.1326169e-39
0.2675733 0.56104839 0.75261074 4.1326169e-39
0.27258444 0.56105876 0.7524178 4.1326169e-39
0.27735645 0.56106865 0.7526015 4.1326169e-39
0.28254554 0.56107932 0.75264114 4.1326169e-39
0.28740096 0.5610894 0.75248498 4.1326169e-39
0.29256177 0.56110013 0.75259161 4.1326169e-39
0.29742151 0.56111014 0.75257105 4.1326169e-39
0.30062154 0.5611167 0.75239611 4.1326169e-39
0.28839549 -0.55890644 0.75670302 1.1164145e-41
0.29256868 -0.55889773 0.75756979 1.1164145e-41
0.29745173 -0.55888766 0.75757432 1.1164145e-41
0.30024871 -0.55888188 0.75783509 1.1164145e-41
0.55330014 -0.33009344 0.75745678 3.6901079e-39
0.55718458 -0.33047014 0.75523949 5.0738019e-39
0.55356312 -0.32725233 0.75624782 4.9816062e-39
0.55730826 -0.32701731 0.75566566 5.0738033e-39
0.55714899 -0.32263997 0.75641614 5.0738019e-39
0.56109595 -0.32192034 0.75528938 5.1663618e-39
0.55752486 -0.31764108 0.75711805 5.0738019e-39
0.5619781 -0.31728581 0.7557953 5.1663618e-39
0.56236035 -0.31177247 0.75668192 5.1663618e-39
0.56518847 -0.3134048 0.75516456 5.1663618e-39
0.56669784 -0.30690882 0.75572234 5.1663618e-39
0.56630999 -0.30290833 0.75616115 5.2581973e-39
0.56736672 -0.29766369 0.75593978 5.1660017e-39
0.54730427 -0.23241399 0.75877178 3.966699e-39
0.5511511 -0.23156276 0.75994217 4.7046466e-39
0.54726613 -0.22745571 0.75768483 3.5975451e-39
0.55171597 -0.22725827 0.75985336 4.704648e-39
0.54785299 -0.22279386 0.75726503 3.5979053e-39
0.55191129 -0.22234043 0.75962812 4.5202525e-39
0.55570459 -0.22142887 0.75995749 4.797208e-39
0.54816598 -0.21749693 0.75663209 3.4131497e-39
0.55176431 -0.21774954 0.75923419 4.2436572e-39
0.55562615 -0.2184547 0.7598595 4.7968478e-39
0.54895145 -0.21242942 0.75684786 3.3213114e-39
0.55161572 -0.21287441 0.75895417 3.7823063e-39
0.54929501 -0.20738403 0.75644684 3.3213114e-39
0.55146664 -0.20744719 0.7584486 3.5057082e-39
0.54947597 -0.20282936 0.75585729 3.1369145e-39
0.55177552 -0.20192967 0.75835139 3.4131497e-39
0.54951257 -0.19877493 0.75505775 2.8599577e-39
0.55183119 -0.19720043 0.75802594 3.3213114e-39
0.55194747 -0.19260654 0.75762981 3.2287528e-39
0.57368463 -0.19219615 0.75919217 1.1418905e-38
0.5528273 -0.18784425 0.75735682 3.1365544e-39
0.55516541 -0.18636385 0.75982416 3.2291115e-39
0.57355547 -0.18760639 0.75933576 1.2345187e-38
0.55376416 -0.18237448 0.75671387 3.0443573e-39
0.55549216 -0.18211752 0.75888461 3.1369159e-39
0.57330549 -0.18214181 0.75916398 1.2531023e-38
0.55460542 -0.17723191 0.75594729 3.136553e-39
0.55638373 -0.17743589 0.75842512 3.136553e-39
0.57277018 -0.17737353 0.75892287 1.5024641e-38
0.57690376 -0.17783624 0.75787807 1.2622137e-38
0.55700314 -0.17228779 0.75751233 3.5964423e-39
0.56926423 -0.17169333 0.75961488 1.2078425e-38
0.57345301 -0.17261584 0.75832349 1.5025385e-38
0.57725286 -0.1726381 0.75749159 1.3550263e-38
0.55822557 -0.16761637 0.75713366 3.3209498e-39
0.56239861 -0.16692798 0.75861704 4.2432943e-39
0.56736714 -0.16741425 0.75924063 4.4276912e-39
0.57263744 -0.16746686 0.75810361 6.7318126e-39
0.57638735 -0.16719885 0.75732177 5.7184272e-39
0.58045113 -0.16727942 0.75621939 7.4701441e-39
0.558797 -0.16379127 0.75565469 4.2432943e-39
0.56223649 -0.16351467 0.75625652 4.1510959e-39
0.56756878 -0.16241889 0.7565937 4.0589002e-39
0.57197458 -0.1621398 0.75714773 3.5979081e-39
0.57668632 -0.16273816 0.75699025 2.6759322e-39
0.5806511 -0.16200198 0.75599879 3.0443644e-39
0.57407176 -0.15952164 0.75536954 3.9666976e-39
0.57769954 -0.15926306 0.75586557 3.5057096e-39
0.23426697 0.56097943 0.75839186 4.1326169e-39
0.23739624 0.56098586 0.75749344 4.1326169e-39
0.24248376 0.56099647 0.75744116 4.1326169e-39
0.24742952 0.56100672 0.75750679 4.1326169e-39
0.25233966 0.5610168 0.75747037 4.1326169e-39
0.25739241 0.56102735 0.75763679 4.1326169e-39
0.2624788 0.56103784 0.75738353 4.1326169e-39
0.26738977 0.56104791 0.75754458 4.1326169e-39
0.27242279 0.56105834 0.75738657 4.1326169e-39
0.27756739 0.56106901 0.75769687 4.1326169e-39
0.28240919 0.56107903 0.75749183 4.1326169e-39
0.28749478 0.56108958 0.75736988 4.1326169e-39
0.29238954 0.56109965 0.75757802 4.1326169e-39
0.2975181 0.56111026 0.7574296 4.1326169e-39
0.30054715 0.56111652 0.75803834 4.1326169e-39
0.29320124 -0.55889642 0.76197535 1.1164145e-41
0.29751599 -0.55888748 0.76239449 1.1164145e-41
0.30012327 -0.558882 0.76319045 1.1164145e-41
0.55394363 -0.22770484 0.76010245 4.797208e-39
0.55498874 -0.22423543 0.76002699 4.797208e-39
0.55795735 -0.22294219 0.76016891 4.797208e-39
0.55746192 -0.21679421 0.76019961 4.796845e-39
0.56241012 -0.21752353 0.76057661 4.9812419e-39
0.55399901 -0.21178222 0.76026398 4.796845e-39
0.55800962 -0.21225692 0.76079339 4.796845e-39
0.56244886 -0.21280672 0.76081425 5.9031912e-39
0.55361748 -0.20750111 0.76047701 3.9667004e-39
0.55782807 -0.2074676 0.76128161 4.7968478e-39
0.56321496 -0.20745853 0.76095092 1.1618543e-38
0.56767535 -0.20742349 0.76027036 1.8991221e-38
0.55382919 -0.20270924 0.76090854 3.5053481e-39
0.55727625 -0.20236418 0.76168674 4.8890435e-39
0.56286919 -0.20253243 0.76118088 1.2908909e-38
0.56742841 -0.2028098 0.76054722 1.7607921e-38
0.55417538 -0.19712389 0.76096082 3.2287514e-39
0.55714822 -0.19750726 0.76205754 4.889398e-39
0.56245804 -0.19758591 0.76148474 1.2079155e-38
0.5672906 -0.19778463 0.76086229 1.7976703e-38
0.57091594 -0.19605605 0.76002157 1.2992723e-38
0.55437982 -0.19274841 0.76072603 3.2287514e-39
0.55723274 -0.19273791 0.76218528 4.5202497e-39
0.56232291 -0.19258942 0.76179773 7.3783073e-39
0.56666291 -0.19244377 0.76124513 1.8254028e-38
0.57083052 -0.19300501 0.76011682 1.3639537e-38
0.55479884 -0.18919706 0.76024497 3.2291115e-39
0.55736965 -0.18748772 0.76179093 4.612067e-39
0.56225455 -0.18762138 0.76203531 1.0788787e-38
0.56659752 -0.18745679 0.76147908 2.0006456e-38
0.57068098 -0.18766783 0.76028359 1.530014e-38
0.55792266 -0.18258107 0.76139772 4.059252e-39
0.56210917 -0.18249552 0.76187867 1.3553905e-38
0.56682116 -0.18257812 0.7613889 1.7699036e-38
0.57079107 -0.18318298 0.76016092 1.4933526e-38
0.55850244 -0.1778211 0.76107407 3.9670549e-39
0.56270796 -0.17732087 0.76152331 1.5950608e-38
0.56706446 -0.17756946 0.76079482 1.7052943e-38
0.55938703 -0.17309001 0.76085407 3.1365544e-39
0.56265759 -0.17204881 0.76085836 9.3136714e-39
0.56723964 -0.17313491 0.76019603 1.4750984e-38
0.56378233 -0.16917133 0.76014912 4.7968394e-39
0.22212942 0.55375069 0.76396453 4.1326169e-39
0.29295635 0.55607086 0.76386356 4.1326169e-39
0.23370776 0.56097817 0.76274276 4.1326169e-39
0.23761728 0.5609864 0.76248276 4.1326169e-39
0.24242786 0.56099617 0.76245105 4.1326169e-39
0.24755089 0.5610069 0.76242983 4.1326169e-39
0.25253266 0.56101716 0.76253831 4.1326169e-39
0.25741169 0.56102729 0.76260269 4.1326169e-39
0.26228058 0.56103724 0.76236433 4.1326169e-39
0.26741245 0.56104803 0.76256549 4.1326169e-39
0.27249315 0.56105846 0.76249498 4.1326169e-39
0.27746579 0.56106877 0.76256448 4.1326169e-39
0.28245217 0.56107903 0.76250505 4.1326169e-39
0.28747812 0.56108946 0.76242411 4.1326169e-39
0.29258728 0.56110007 0.76265991 4.1326169e-39
0.29757795 0.56111032 0.76239908 4.1326169e-39
0.3005845 0.56111652 0.76218992 4.1326169e-39
0.29816067 -0.55888599 0.76705146 1.1164145e-41
0.30044943 -0.55888128 0.76626039 1.1164145e-41
0.54653174 -0.18869054 0.76505524 4.797208e-39
0.2340318 0.56097889 0.76551557 4.1326169e-39
0.2375208 0.56098604 0.76721138 4.1326169e-39
0.24249822 0.56099635 0.76739138 4.1326169e-39
0.24751487 0.56100667 0.7675519 4.1326169e-39
0.25244099 0.56101692 0.76754045 4.1326169e-39
0.25745982 0.56102735 0.76750267 4.1326169e-39
0.2625156 0.56103766 0.76754296 4.1326169e-39
0.26753098 0.56104809 0.76741898 4.1326169e-39
0.27245727 0.56105834 0.76748604 4.1326169e-39
0.27742824 0.56106859 0.76757073 4.1326169e-39
0.28246641 0.56107903 0.76761651 4.1326169e-39
0.28746107 0.56108934 0.76742226 4.1326169e-39
0.29253814 0.56109977 0.76761448 4.1326169e-39
0.29738408 0.5611099 0.76749748 4.1326169e-39
0.30047768 0.56111622 0.76745164 4.1326169e-39
0.30021572 -0.5588817 0.7705071 1.1164145e-41
0.55720133 -0.25009036 0.77202445 5.0737991e-39
0.5495137 -0.24070312 0.77284688 4.8894078e-39
0.23933041 0.5609898 0.77063131 4.1326169e-39
0.24267839 0.56099665 0.77222174 4.1326169e-39
0.24745324 0.56100649 0.77246577 4.1326169e-39
0.2524963 0.56101692 0.77250379 4.1326169e-39
0.25746772 0.56102729 0.77261007 4.1326169e-39
0.26253963 0.56103778 0.77257025 4.1326169e-39
0.26763177 0.56104821 0.77235073 4.1326169e-39
0.27263045 0.56105864 0.77254152 4.1326169e-39
0.2775 0.56106871 0.7725265 4.1326169e-39
0.28251103 0.56107908 0.77260047 4.1326169e-39
0.28747827 0.56108928 0.77229136 4.1326169e-39
0.2923505 0.56109941 0.77243137 4.1326169e-39
0.29751053 0.56111008 0.77272165 4.1326169e-39
0.30067295 0.56111658 0.77200979 4.1326169e-39
0.24402896 0.56099939 0.77579832 4.1326169e-39
0.24764034 0.56100684 0.77724111 4.1326169e-39
0.25255138 0.56101692 0.77753413 4.1326169e-39
0.25759017 0.56102735 0.7776736 4.1326169e-39
0.26248601 0.5610376 0.77753502 4.1326169e-39
0.26755363 0.56104803 0.77747369 4.1326169e-39
0.27251258 0.56105828 0.77748019 4.1326169e-39
0.27754125 0.56106865 0.7774958 4.1326169e-39
0.2825855 0.56107914 0.77746236 4.1326169e-39
0.28760806 0.56108958 0.77733833 4.1326169e-39
0.2925449 0.56109971 0.77764261 4.1326169e-39
0.29746154 0.5611099 0.77762377 4.1326169e-39
0.30054134 0.56111622 0.77770197 4.1326169e-39
0.24909663 0.56100982 0.78097206 4.1326169e-39
0.25268757 0.56101722 0.78239179 4.1326169e-39
0.25743836 0.56102711 0.78252959 4.1326169e-39
0.2623817 0.56103724 0.78244019 4.1326169e-39
0.26747677 0.56104785 0.7825368 4.1326169e-39
0.27254575 0.56105828 0.78244638 4.1326169e-39
0.27752462 0.56106853 0.78248632 4.1326169e-39
0.28249371 0.56107885 0.78260535 4.1326169e-39
0.28739905 0.56108904 0.78251719 4.1326169e-39
0.29243058 0.56109941 0.78271604 4.1326169e-39
0.29741451 0.56110966 0.7824719 4.1326169e-39
0.30046943 0.56111604 0.783041 4.1326169e-39
0.25383836 0.56101954 0.78615755 4.1326169e-39
0.25750968 0.56102717 0.78746867 4.1326169e-39
0.26245776 0.56103736 0.787301 4.1326169e-39
0.26746532 0.56104779 0.78753245 4.1326169e-39
0.27230382 0.56105769 0.78733712 4.1326169e-39
0.27740145 0.56106836 0.7875483 4.1326169e-39
0.28246123 0.56107873 0.78763175 4.1326169e-39
0.28748626 0.56108922 0.78743678 4.1326169e-39
0.2925328 0.56109959 0.7876001 4.1326169e-39
0.29753771 0.5611099 0.78752995 4.1326169e-39
0.30062872 0.56111634 0.78719789 4.1326169e-39
0.25863442 0.56102943 0.7912901 4.1326169e-39
0.26244295 0.5610373 0.7923407 4.1326169e-39
0.26742077 0.56104755 0.79260093 4.1326169e-39
0.27246553 0.5610581 0.79240519 4.1326169e-39
0.27757102 0.56106853 0.79247409 4.1326169e-39
